ply
format ascii 1.0
comment Written with hapPLY (https://github.com/nmwsharp/happly)
element vertex 586
property float x
property float y
property float z
property float nx
property float ny
property float nz
property uchar red
property uchar green
property uchar blue
end_header
9.6232996 1.19779003 -9.84980011 -0.2839818 -0.932840884 0.221726134 33 19 8
11.0268002 1.11082995 -9.16090965 -0.242548749 0.923488379 0.297218531 190 125 59
9.66429996 1.20123994 -9.79349995 -0.307942897 0.0535806231 0.949894845 41 19 6
8.60081005 1.32580996 -10.8518 0.83671385 0.536832452 -0.108263426 118 83 27
12.0136003 1.25153005 -10.7580996 0.302981168 0.662777483 0.684783399 188 117 53
11.6059999 1.14906001 -9.59953022 -0.752550602 -0.0314149633 0.657784641 171 114 45
9.89776993 1.18497002 -9.57775021 -0.956078291 -0.11358875 -0.270207942 187 127 73
9.73478031 1.24576998 -9.96821022 -0.158014506 0.0276174527 0.987050474 54 0 0
8.0135603 1.37779999 -10.9187002 0.710302889 0.684570134 -0.163809136 117 79 8
11.6449003 1.20782006 -9.93167019 -0.736397207 -0.443222255 -0.511148632 173 100 47
11.5450001 1.17095995 -9.5329504 -0.375141352 -0.235199198 -0.896632791 193 128 60
9.60346985 1.23836994 -9.76235962 0.591842771 -0.148088738 0.792333424 101 54 26
10.1540003 1.22651994 -9.67471981 -0.934705377 -0.354747713 0.021904368 100 68 7
8.18350983 1.40886998 -11.0525999 0.210850164 0.812152505 0.544013202 117 78 9
10.4278002 1.20375001 -9.41580009 0.211526066 0.683992863 0.698147893 207 147 87
7.89720011 1.37980998 -10.5825005 0.286568016 -0.958059669 -0.000357335724 146 107 38
12.0121002 1.31611001 -10.8245001 0.893116117 0.440069616 0.0931785032 147 77 17
11.4201002 1.18408 -9.36474037 0.216027632 0.347321749 0.912524104 213 144 75
9.77600002 1.30125999 -10.1410999 -0.927520514 0.36564061 0.0775399059 58 15 8
11.9489002 1.33152997 -10.7699003 0.613113046 0.576834619 0.539772809 229 160 93
11.6365004 1.22223997 -9.61736965 -0.890526295 0.372180998 0.261618912 206 130 52
9.87158012 1.26821995 -9.64342976 -0.700829983 -0.299639672 -0.647343218 161 88 33
8.58948994 1.44553995 -11.0806999 0.814215422 0.114593551 0.569140911 124 73 8
8.16139984 1.45668006 -11.0868998 0.0745123401 0.822344482 0.564090014 120 83 15
11.7680998 1.29749 -10.2979002 0.964191794 0.0329904631 -0.263145745 217 136 55
11.2384996 1.20560002 -9.26928997 0.34026736 0.747222245 0.570856392 153 96 27
8.01836014 1.46961999 -11.0713997 0.859477818 0.112612024 0.498614371 97 56 0
11.3963003 1.22139001 -9.37473011 0.348576158 0.605257332 0.715652227 171 115 54
9.72570992 1.35195005 -10.2367001 -0.959575653 0.160103112 -0.231477052 72 28 1
11.9392996 1.36385 -10.7992001 0.967344522 -0.221578375 0.123075433 209 137 65
11.677 1.28522003 -9.97447968 -0.57123059 0.518237174 -0.636494875 204 121 43
11.4981003 1.23104 -9.4066 -0.797620416 0.36669904 -0.478888005 218 141 71
8.46284962 1.49284995 -11.1921997 0.719730616 -0.690322638 0.0737746879 115 76 11
11.7539997 1.33026004 -10.3374004 0.998423338 -0.0529278331 -0.0186966266 207 131 45
10.9029999 1.25320005 -9.38679981 0.308021039 -0.589873731 -0.746439636 105 72 21
10.2325001 1.29679 -9.64004993 -0.917551339 0.255934745 -0.304297596 100 69 15
8.51089954 1.46270001 -10.8091002 0.850329399 -0.451404423 0.27050671 93 64 4
11.6134005 1.27151 -9.65110016 -0.924444199 -0.19667916 0.326680332 211 132 63
11.6693001 1.3125 -9.96802044 -0.542009711 0.595578909 -0.592883885 214 134 65
11.4745998 1.25446999 -9.36884975 -0.434100628 -0.292263478 -0.852137864 188 114 51
9.86073017 1.32980001 -9.68124008 -0.471057415 0.38747856 0.79244262 161 98 44
9.65886974 1.35143995 -9.83627987 -0.899154305 0.436577231 -0.0303601865 120 65 8
11.6169004 1.31020999 -9.84609985 -0.924185216 -0.199189141 -0.325891972 227 149 85
8.41230011 1.52869999 -11.1040001 0.953511357 -0.226006687 0.199341506 98 68 8
9.67175007 1.37225997 -9.85206985 -0.710819721 0.183322817 -0.679063976 130 75 19
8.69839001 1.51534998 -10.9483995 0.569965899 -0.798039615 0.195631027 118 67 2
8.57518005 1.54575002 -11.1004 0.891090751 -0.30796358 -0.333339572 116 77 8
11.7607002 1.42873001 -10.7250004 0.827152133 0.293486625 0.479254544 146 65 2
11.6077995 1.32936001 -9.76583004 -0.940213501 0.213398978 -0.265441477 181 113 48
10.5277996 1.38257003 -9.98429012 0.377843261 0.918412447 0.117274612 104 58 0
10.6570997 1.31794 -9.41864014 -0.267316312 0.377439141 -0.886612356 104 63 7
8.12055016 1.52748001 -10.7149 0.898967147 -0.424836904 -0.106636882 115 79 19
8.09175968 1.52030003 -10.6410999 0.926062047 -0.113751061 -0.359819174 106 67 2
11.6422005 1.34440005 -9.82888985 -0.931176424 -0.180975616 -0.316478014 167 94 25
11.5776997 1.32584 -9.64159966 -0.600573003 -0.796782613 -0.0667061433 176 111 43
11.5320997 1.31297004 -9.5115099 -0.0117488187 -0.849522054 -0.52742213 147 86 23
11.7463999 1.39294004 -10.2158003 -0.782653332 0.269090861 -0.561287582 228 165 98
10.3366003 1.35760999 -9.53129005 0.939287663 0.274331808 0.206108868 87 59 11
10.1413002 1.36698997 -9.56706047 0.387149304 -0.817612469 -0.426175147 155 99 48
8.62335014 1.57231998 -11.0571003 0.948362947 0.274403334 -0.159093484 111 73 2
11.9476004 1.49625003 -11.1218996 0.523843765 0.754512131 -0.395347536 105 47 10
11.9431 1.49079001 -11.0711002 0.605333388 0.408510864 0.683147371 141 73 12
10.7896004 1.35325003 -9.52305031 -0.902527332 -0.256840765 -0.345655173 114 78 20
10.1145 1.38778996 -9.57752991 0.649147868 -0.754784405 -0.0943778902 218 161 106
9.74256992 1.45043004 -10.0479002 -0.509592712 0.83865428 -0.192287132 68 11 0
8.65458012 1.59168005 -11.0440998 0.283848315 -0.954819858 0.0880293995 113 73 3
8.41275978 1.58811998 -10.9492998 -0.930413485 0.298722476 0.212357566 94 65 5
11.7629995 1.41841996 -10.1956997 -0.79664886 0.175587147 -0.578376651 178 109 42
9.70796013 1.46626997 -10.0925999 -0.469603628 0.772620976 0.427234411 105 44 0
8.10498047 1.57084 -10.6167002 0.945346117 0.286136389 -0.15635626 123 86 18
11.1337996 1.38758004 -9.67226982 -0.0836726204 -0.912190199 0.401133358 112 70 12
11.1341 1.38486004 -9.64799023 -0.086148195 -0.891288638 0.445177794 112 72 13
9.56040955 1.5072 -10.3313999 -0.0289493669 0.923596382 0.382271737 119 60 4
11.7389002 1.43921995 -10.2074003 -0.922700405 -0.195637405 -0.332189351 238 169 100
10.2004004 1.41068995 -9.55142021 0.148047149 -0.133547261 0.979921937 92 50 0
9.58141041 1.51212001 -10.2908001 -0.0252975803 0.941120863 0.337122351 125 69 12
9.37537956 1.47907996 -9.94334984 -0.746386468 0.520507455 -0.414703727 194 133 76
8.14733982 1.58325005 -10.5476999 0.773221374 0.593509078 -0.223327532 126 89 21
10.1955996 1.42127001 -9.56046963 0.807250321 -0.170833275 0.564945221 92 48 0
8.14758968 1.59378004 -10.5466003 0.777037621 0.609644949 -0.156669587 130 91 22
11.5798998 1.40313995 -9.68346977 -0.678706288 -0.222219452 -0.699983478 168 103 35
9.84630966 1.45959997 -9.72229004 -0.441047847 0.355627418 0.824018359 204 148 91
10.3858004 1.43118 -9.53267002 0.173853368 0.422807872 0.889386415 95 44 1
8.10976982 1.67095006 -10.9291 0.82831645 -0.399297625 -0.393005013 104 66 1
10.7160997 1.46202004 -9.72552013 -0.783163309 -0.0327167548 -0.62095499 124 76 14
10.5581999 1.44751 -9.55809975 -0.312334001 0.519411087 0.79539901 131 72 14
10.2035999 1.46149004 -9.58428955 0.938148856 0.312933654 0.148151547 89 45 0
11.1861 1.44674003 -9.63953018 0.355297148 -0.443945169 0.822603405 93 49 2
8.46700954 1.72536004 -11.3043003 -0.292292386 0.0875855535 0.952309728 106 67 0
11.6962004 1.61048996 -11.0964003 -0.0217158981 0.914422035 -0.404179156 144 59 2
11.2672005 1.61606002 -11.0286999 0.654726446 -0.256632745 -0.710966349 19 11 0
11.2863998 1.63645995 -11.1215 0.16707857 0.0823345482 -0.982499778 59 13 0
8.21339035 1.73775005 -11.1532001 0.68679595 0.726126254 0.0324367695 116 80 20
11.2023001 1.66928005 -11.2040005 0.427713662 0.0480583645 -0.902635753 17 11 0
10.1529999 1.53468001 -9.78851032 0.0670536384 0.353682071 0.932959139 102 52 1
11.3628998 1.47529995 -9.54193974 -0.997637987 -0.0686681047 0.00179809122 96 43 0
8.14099979 1.77482998 -11.1662998 0.971340299 -0.226593256 -0.0717921183 106 69 1
10.6136999 1.50426996 -9.50234032 -0.55908376 0.344101489 0.754333794 125 64 7
9.33607006 1.66766 -10.5106001 -0.999757051 0.0185736977 -0.0118641183 89 33 0
8.44526005 1.77286005 -11.1410999 -0.186547399 -0.420255452 0.888023376 107 71 11
10.3099003 1.56435001 -9.68198013 -0.200663745 0.357020885 0.912288368 118 66 16
9.8485899 1.60121 -9.85595989 0.91780889 0.0899124593 0.386707395 146 86 36
9.76385021 1.60098004 -9.83067989 -0.28150627 0.410640746 0.867253363 174 113 68
11.5066004 1.55306005 -9.84442043 0.617079854 -0.186731234 0.764423788 27 11 0
8.13000011 1.81428003 -11.0334997 0.53076303 -0.242749199 0.812012017 108 69 4
11.6527996 1.66012001 -10.6761999 0.398381114 0.620157242 -0.675794125 185 106 37
8.18420029 1.83829999 -11.1538 0.960358024 -0.200198278 -0.193991944 104 66 3
11.7089996 1.69209003 -10.8705997 -0.324422568 0.936933577 -0.130021676 175 97 25
10.7599001 1.55613995 -9.51218033 0.239252388 0.677743375 0.695285618 103 44 0
8.57748985 1.82387996 -11.0583 -0.0233287159 0.51644969 0.855999649 124 88 28
10.7032003 1.57173002 -9.54703999 -0.136832267 0.589182973 0.79632926 103 46 1
11.8657999 1.68566 -10.7061996 0.971433997 0.0289596133 0.235535398 211 131 58
11.5721998 1.70264995 -10.7592001 -0.269973159 0.786372602 -0.555637419 164 85 19
11.2301998 1.75692999 -11.0955 0.368016869 -0.763300121 0.53097707 106 31 0
11.5690002 1.60615003 -9.98989964 0.959877074 0.150659293 0.236512288 141 66 24
9.51506996 1.67767 -9.98349953 -0.501058817 0.0352681838 0.864694118 165 105 45
8.35766029 1.85774004 -11.0928001 0.619385302 -0.686746299 0.380448312 92 60 1
11.8254995 1.69289005 -10.6752005 0.111442953 0.893818557 -0.434359908 200 119 40
10.0205002 1.64541996 -9.79156017 -0.296399623 0.42674914 0.854419231 140 78 29
9.84136009 1.66831005 -9.84533024 -0.525592625 0.0686466247 0.84796232 174 110 64
9.61184025 1.68684006 -9.92663956 -0.780154645 0.555602789 0.287513763 124 61 20
8.22714996 1.87985003 -11.0571003 0.929969907 0.152632788 -0.334453791 99 59 0
11.7552996 1.69195998 -10.4958 0.984736085 0.0931406468 0.147036061 222 140 56
11.7648001 1.68438005 -10.4390001 0.97365129 0.040307194 0.224451363 215 131 45
8.22597027 1.84870005 -10.7263002 0.975130916 -0.0516827889 0.215519354 112 75 7
11.7109003 1.70529997 -10.3633003 0.667747974 -0.697136283 -0.260985285 232 152 83
11.5663996 1.66290998 -9.99483013 0.969902158 -0.0300655924 0.241631463 221 144 66
11.7384996 1.71670997 -10.3126001 0.725069642 -0.374719024 0.577805996 211 132 65
11.6524 1.68628001 -10.0551996 0.689433157 -0.572583854 0.443654627 184 105 30
8.60744953 1.93832004 -11.1084003 -0.0853772685 -0.432889313 0.897394776 107 72 14
11.5752001 1.66350996 -9.78855991 0.990044653 0.0395347774 0.135087043 224 141 65
9.28197956 1.81227005 -10.2605 -0.930119038 0.0199298598 0.366716534 227 161 77
11.7999001 1.76727998 -10.5691004 0.962261796 -0.166169167 0.215499207 193 115 51
11.2551003 1.64838004 -9.51198959 -0.168083936 0.0811620653 -0.982425809 97 37 0
10.7055998 1.67261004 -9.53695965 -0.623918772 0.2032011 0.754608929 179 92 21
10.5739002 1.68603003 -9.60050011 -0.360767603 -0.776486576 0.516638517 209 136 57
10.3011999 1.71237004 -9.64939022 -0.359858066 0.222223163 0.906156301 239 170 93
10.2396002 1.72566998 -9.73176956 -0.675239742 -0.0218057688 0.737276018 207 135 63
9.90155029 1.75437999 -9.85023022 -0.134443849 0.970371962 -0.200756371 137 61 1
11.6147003 1.72080004 -10.0222998 0.761203408 -0.624979436 0.173118085 172 99 30
11.6100998 1.71908998 -10.0080004 0.755075395 -0.614230871 0.229307115 167 92 24
9.69616985 1.78255999 -9.92883968 0.02871296 0.615205288 -0.787843943 172 93 26
11.5848999 1.72779 -9.99588013 0.668548584 -0.0698633566 0.740379333 175 96 29
9.96140003 1.76989996 -9.83804035 0.46237576 0.835369706 0.297264189 147 78 3
11.7237997 1.77592003 -10.3241997 0.943276107 0.32145676 -0.0830401331 193 122 58
8.67821026 1.98966002 -11.0229998 -0.281220168 -0.773056746 0.568593442 108 72 10
8.65736961 1.99251997 -11.0381002 -0.264939427 -0.778180361 0.56942302 111 77 16
8.18047047 1.98938 -10.8759003 0.566535592 -0.56013149 0.60439235 122 77 10
10.4053001 1.75190997 -9.69132042 -0.482592702 -0.133654892 0.865586758 230 166 95
11.4134998 1.70225 -9.55177021 0.737037003 0.0544464365 0.673655689 214 135 58
10.0488997 1.79211998 -9.81268024 -0.781579435 0.501039505 0.371608764 222 150 74
11.5890999 1.75974 -9.9571104 0.62478739 0.329278171 0.707966506 189 109 48
11.4013996 1.70931995 -9.53322983 0.0101249376 0.0453134589 0.998921573 242 165 97
11.2397003 1.71434999 -9.52260017 -0.468405902 -0.46094954 0.753738105 157 72 5
11.1724005 1.72297001 -9.56585026 0.248779401 -0.499379009 0.829897106 146 62 0
11.0198002 1.71155 -9.43750954 0.634800434 -0.733619153 -0.242551535 211 140 62
10.7596998 1.74036002 -9.50407028 -0.563789785 0.31403926 0.763885021 246 177 108
10.4684 1.78390002 -9.66639042 -0.203292623 -0.220332265 0.954005003 97 19 0
11.5290003 1.80128002 -10.0370998 0.128861934 0.618707001 0.774981499 112 28 0
11.4686003 1.75448 -9.68169022 0.0618976206 -0.98914212 0.133290902 230 157 88
10.8779001 1.77016997 -9.55335045 0.509779692 0.129704922 0.850471377 196 117 51
10.3893995 1.80771995 -9.67809963 -0.813708484 -0.391813397 -0.429372698 188 116 44
10.1264 1.83629 -9.80517006 -0.09940283 -0.183169305 0.97804302 124 46 0
11.7009001 1.86589003 -10.4153004 0.909626484 -0.149743304 0.387500882 214 135 68
11.6076002 1.84353995 -10.2279997 0.914078832 -0.369550556 -0.167010307 200 122 50
11.1115999 1.76190996 -9.49748039 0.402769178 0.133635193 0.905493498 230 156 93
11.1033001 1.76173997 -9.4938097 0.558620095 0.274526 0.782674253 234 160 97
10.1415005 1.84099996 -9.77431011 -0.235453591 -0.16069971 0.958507776 166 86 23
11.3943996 1.76642001 -9.5485096 0.349166125 0.422596991 0.836357534 214 143 81
11.1040001 1.76736999 -9.46879005 0.651962936 0.313462019 0.690424323 233 159 96
11.4524002 1.77658999 -9.57320023 0.675550222 0.440172732 0.591506124 175 95 44
11.316 1.77552998 -9.52501965 0.553471446 0.437505007 0.708702087 209 137 78
10.0157003 1.88935995 -9.87370968 -0.653875232 0.754525006 -0.0560261905 187 110 40
11.1793003 1.79595006 -9.49909019 0.325640023 -0.0963985696 0.940566599 94 24 0
11.8121996 1.95641005 -10.6772003 0.91268158 0.106393933 0.394578964 215 140 75
11.0677004 1.82248998 -9.45891953 0.434291124 0.247075543 0.866224527 204 132 58
11.5923996 1.90225005 -10.1035004 0.907432258 0.0375361256 0.418518841 212 134 62
10.4756002 1.88484001 -9.64610004 -0.405630529 -0.174612194 0.897203565 108 24 0
10.0896997 1.91938996 -9.76731968 0.181975693 0.105927095 0.977580845 142 62 3
11.5106001 1.87794006 -9.8474102 0.497309119 -0.72194773 0.481118172 216 138 66
10.7084999 1.89179003 -9.69941044 0.505463183 0.382188648 0.773588479 173 95 20
9.93502045 1.95237005 -9.8803196 -0.689274549 -0.358274251 0.629714191 151 63 0
9.63881016 1.98448002 -9.94283009 -0.560343146 0.777784944 0.28472057 200 117 37
11.5275002 1.89300001 -9.82849979 0.821753144 -0.42251426 0.382365942 183 106 38
10.809 1.88933003 -9.52188015 -0.367054373 -0.0215405915 0.929950058 230 152 78
9.70497036 1.99812996 -9.92129993 -0.393155783 0.38738668 0.83388257 205 122 46
10.9463997 1.89590001 -9.48336983 -0.338372856 -0.693731546 0.635798931 241 155 80
10.1022997 1.98212004 -9.80307007 -0.845547318 0.0881875083 0.526566863 129 47 0
10.0773001 1.97798002 -9.7677002 0.0325142071 0.00233820337 0.999468505 157 75 1
11.0483999 1.89612997 -9.45454979 0.216651484 0.107020468 0.970365286 197 121 45
10.7882004 1.91815996 -9.52182961 -0.554626167 0.596608281 0.580042005 238 167 87
11.5243998 2.05021 -10.5636997 0.720806956 0.282758534 0.632839262 59 1 0
10.0060997 2.01202011 -9.84352016 -0.63862592 0.46755293 0.611188471 231 157 92
11.7813997 2.05586004 -10.6155005 0.412637234 -0.538096428 0.734971046 205 135 75
11.2945995 1.91901004 -9.49967003 0.354008198 0.327632219 0.87597692 207 134 66
10.3878002 1.99098003 -9.69419956 -0.0867324695 0.430300683 0.898509264 138 71 18
9.72278023 2.06048012 -9.94705009 -0.698982835 0.272571713 0.661156654 119 48 4
10.0986004 2.04106998 -9.8073101 -0.274697155 0.618626952 0.736099303 134 63 17
11.2166996 2.14620996 -10.7747002 -0.158651561 0.987151325 -0.0190360844 196 125 69
10.9326 1.97599995 -9.57962036 0.725902379 -0.503204405 0.468882501 114 45 3
10.9292002 1.97033 -9.54168987 -0.27450031 0.428882062 0.860644996 150 80 28
11.4266996 2.20535994 -11.1581001 0.209150136 -0.761800408 0.613120139 106 31 0
11.4116001 1.97987998 -9.69328022 0.747847319 0.319683701 0.581830502 190 116 53
10.5909996 2.01385999 -9.65839958 0.480152875 0.300764173 0.824010491 151 85 33
11.7805996 2.13778996 -10.7666998 0.598076463 0.607362807 0.522890866 196 118 56
11.7699003 2.13380003 -10.7377005 0.634608924 0.525542617 0.566635847 149 74 16
9.72630978 2.11487007 -9.97968006 -0.168710813 0.816052735 0.55280596 112 44 7
9.62166023 2.12782001 -10.0305996 -0.245632038 0.878191292 -0.410419911 125 58 15
9.30473042 2.18544006 -10.3036003 -0.944080353 -0.276100457 -0.180225119 140 92 56
11.2066002 2.01469994 -9.73425007 -0.233717635 0.918883681 0.317849666 87 19 0
10.0896997 2.27393007 -11.0506001 -0.838786364 0.284210414 0.464394331 89 23 1
9.96592999 2.14085007 -10.1575003 -0.867668867 -0.121078208 0.482173383 85 25 0
11.0579996 2.07772994 -9.97017956 0.276191473 0.95999378 -0.046156954 89 28 0
10.6157999 2.13170004 -10.1754999 0.0480870381 -0.0147758471 -0.998733759 103 32 2
9.9517498 2.13155007 -9.96683025 -0.632661343 0.774203181 0.0186975673 106 49 6
11.4154997 2.18836999 -10.6605997 0.489861161 0.728049457 -0.479562074 103 32 2
11.1792002 2.02584004 -9.56015015 -0.314061105 0.490539044 0.81285733 85 25 0
10.0986996 2.13852 -9.93249989 -0.0482691899 0.335925102 0.940651 117 55 18
11.776 2.17053008 -10.5386 0.902248383 -0.0372631885 -0.429603785 225 155 86
11.6805 2.13175011 -10.2657003 0.975500822 0.212000325 -0.0587740093 228 160 99
10.9784002 2.05676007 -9.51692009 0.685300946 -0.123195566 -0.717764378 139 69 7
11.3889999 2.07813001 -9.72181034 -0.814591169 -0.0254480243 -0.579477251 203 135 74
11.7875004 2.19349003 -10.5040998 0.48238191 0.277597278 -0.830811441 215 146 81
10.9345999 2.28214002 -10.7826004 0.236032814 0.898191869 0.370863348 120 50 1
11.8081999 2.25053 -10.7418003 0.851907492 0.22874254 0.471094698 212 143 74
11.7939997 2.24826002 -10.7234001 0.575128555 0.0405482017 0.81705761 151 77 16
11.7496004 2.24735999 -10.7038002 0.6015172 -0.734177053 -0.31489861 161 85 35
9.95722961 2.46416998 -11.4650002 0.0451688394 -0.918875515 -0.391953498 80 30 3
9.47296047 2.2723 -10.1338997 -0.965186 0.17384544 -0.195432037 158 85 30
11.1545 2.12175989 -9.68688965 -0.0122497948 0.985908806 0.166834161 98 35 0
10.8652 2.20128989 -10.0809002 0.344500631 0.917525768 -0.198659763 109 50 6
9.70551014 2.2765801 -9.98964977 -0.839226723 -0.332953781 -0.4299303 191 116 61
11.7896004 2.36705995 -11.1408997 0.901177526 -0.352730542 0.251913756 232 171 108
11.6199999 2.37169003 -11.1143999 0.345078319 -0.709677279 0.614230573 109 35 0
11.7402 2.25710011 -10.4637003 -0.0039426093 0.713450015 -0.700695097 135 67 6
11.2484999 2.30157995 -10.5739002 -0.255765349 0.966127217 0.0343868732 105 46 2
9.30902004 2.38125992 -10.3703003 -0.888477564 -0.0549042933 -0.455623388 217 147 87
11.7904997 2.32337999 -10.7011995 0.985400558 -0.14850153 0.0832647532 165 89 29
11.7709999 2.29368997 -10.4610004 -0.716722727 0.598564506 -0.357811272 217 150 79
10.2659998 2.2569499 -9.7589798 -0.555304646 -0.282227278 -0.782294333 170 94 42
11.2539997 2.17543006 -9.53983021 0.469098508 0.0264357701 0.882749975 149 75 14
9.79039001 2.3287499 -9.9721899 -0.199739903 0.231571227 -0.952091753 165 95 43
9.32509995 2.42584991 -10.2736998 -0.818598151 -0.287903577 0.496999621 245 173 101
10.8655996 2.37290001 -10.3464003 0.210928097 0.974227905 -0.0799353942 64 33 2
11.8233995 2.38659 -10.5110998 0.536415219 -0.766057372 0.354139626 109 36 1
9.83197975 2.40969992 -9.99409008 0.726243138 -0.525971472 -0.442634076 112 40 0
10.1327 2.36599994 -9.78654957 0.0335720219 -0.103542186 -0.994058311 174 95 26
11.7428999 2.36982012 -10.2793999 -0.923459291 -0.159304395 -0.349063396 135 67 6
10.4572001 2.71529007 -11.8200998 -0.503523648 -0.544886887 -0.67049402 58 20 1
10.7841997 2.34606004 -9.83119011 -0.205136731 0.303843677 0.930375218 84 22 0
10.5052004 2.33398008 -9.6714201 -0.789317906 0.450707525 0.416940749 161 82 13
11.7914 2.41757011 -10.4563999 -0.561827302 -0.752944529 0.342672676 220 158 97
11.4375 2.36088991 -10.0211 0.43605715 0.892304242 -0.116823241 162 106 45
10.7692003 2.3285501 -9.56694031 -0.279205829 -0.767297029 0.577320993 231 152 86
9.40999985 2.51252007 -10.1535997 -0.784864128 0.203242898 0.585389197 177 104 25
11.7252998 2.40270996 -10.2433004 -0.813577294 -0.0185052305 -0.581161857 189 118 62
9.98188972 2.43444991 -9.84790993 0.343751222 0.509722233 -0.788681269 223 140 60
11.7498999 2.44955993 -10.4590998 -0.490130216 -0.573995352 0.65597415 195 134 71
9.66401005 2.48546004 -9.97286034 -0.670008779 0.111860074 0.733876944 171 95 17
11.8247995 2.48461008 -10.6245003 0.69810462 0.71424216 0.0500821881 170 107 53
10.0692997 2.44456005 -9.82382965 0.11262092 -0.413199246 -0.903649747 217 145 63
11.2530003 2.34895992 -9.63142014 0.345917791 -0.323959023 0.8805632 143 70 1
10.9292002 2.3489399 -9.52455997 -0.0643407404 -0.669119298 0.740364552 251 182 107
9.42012978 2.55267 -10.1535997 -0.781866431 0.10698849 0.614196837 236 160 82
11.04 2.34715009 -9.4998703 0.264571548 -0.676958025 0.686825871 216 145 65
10.7025003 2.37327003 -9.53236008 -0.500724494 -0.82573837 0.259676099 186 110 32
11.4209995 2.37087011 -9.65423965 0.602681339 -0.0903389752 0.792851865 191 116 48
11.5136003 2.40001988 -9.69217968 -0.859001994 -0.17235674 0.482088029 118 43 1
10.9825001 2.39145994 -9.46942997 -0.0062368284 0.45372957 0.891117632 132 62 2
11.5038004 2.4381001 -9.84430981 -0.727486491 -0.086204268 -0.680685222 155 81 18
11.0874996 2.40044999 -9.5027504 -0.288970321 0.150791705 0.945387781 208 140 67
10.8434 2.43366003 -9.60064983 0.401721269 0.600268483 0.691590726 120 46 0
10.8310003 2.43115997 -9.58304977 0.273552775 0.767123878 0.580250263 123 49 0
10.9369001 2.44478011 -9.64099026 0.638761878 0.654283583 -0.404840946 99 25 0
10.9209003 2.43544006 -9.5854702 0.439236015 0.876061559 -0.198967874 91 15 1
11.2384996 2.41717005 -9.5433197 0.0937686265 0.597892463 0.796073079 206 135 73
11.7720003 2.66931009 -10.9637003 0.735698104 -0.617028773 -0.279326379 192 117 52
10.2131004 2.54199004 -9.76580048 0.589056671 0.805356801 -0.0664256364 230 161 92
11.3189001 2.87101007 -11.8275995 0.345503002 -0.503252923 -0.792063057 215 167 129
11.3394003 2.45558 -9.63333035 0.651221395 0.223540559 0.725217521 195 117 55
11.3691998 2.47670007 -9.65660954 0.266485602 0.20849973 0.941017091 164 90 25
11.1892996 2.46614003 -9.54074955 0.182600483 0.127859324 0.974838018 210 141 74
11.7832003 3.04535007 -12.6696997 0.00088835269 -0.995546281 -0.0942705423 238 203 175
11.5771999 2.59179997 -10.2306995 -0.734662533 -0.332665324 -0.591274023 106 41 1
11.1679001 2.66917992 -10.4975004 0.595949531 -0.54194808 0.592567503 93 33 0
9.35649967 2.75281 -10.3256998 -0.997991085 0.0326975323 -0.0542638823 112 45 0
8.61855984 3.04819012 -11.6211004 -0.17623423 -0.906460941 0.38375777 184 148 122
11.1689997 2.68356991 -10.5211 0.705773532 -0.423501015 0.567917883 89 29 3
11.7434998 2.60237002 -10.2417002 0.101006791 0.668175399 -0.737115443 201 130 76
11.4042997 2.76338005 -10.9629002 0.162569001 -0.0909197703 0.982499361 110 38 0
10.6722002 2.55493999 -9.63477993 -0.00281590666 0.728993833 0.684514344 129 62 9
9.78314972 2.67679 -9.96761036 -0.283135533 0.434423745 0.855049908 151 87 26
9.51358986 2.7272799 -10.1387997 -0.701780736 -0.70348978 0.112275846 142 77 21
8.6028204 3.02824998 -11.3937998 0.0680173188 -0.995813072 0.0610694773 158 134 110
8.38747978 3.06818008 -11.5284996 0.0264756437 -0.999090791 0.0334168188 203 175 151
8.34154034 3.06491995 -11.4961004 0.00529078627 -0.988571584 0.15065904 221 190 169
11.7476997 2.61888003 -10.2292995 -0.096008651 0.460033387 -0.882695615 216 148 87
8.18373966 3.05589008 -11.2785997 -0.0205630269 -0.998953581 0.0408515893 212 184 163
9.88897991 2.95560002 -11.2814999 0.416294783 -0.628127456 0.657384694 98 35 2
8.26305008 3.0568099 -11.2519999 0.181958422 -0.980343103 0.0762800872 234 206 182
11.8406 2.76480007 -10.9095001 0.347563833 -0.919002295 0.186102644 165 90 25
11.3667002 2.54717994 -9.63535023 0.971923947 0.216885045 0.0912381485 151 82 27
10.5690002 2.60882998 -9.63236046 0.340269268 0.930320024 0.136827603 190 119 67
9.59304047 2.82909989 -10.3730001 -0.467762858 -0.80294925 0.369418561 105 37 0
8.03361988 3.07007003 -11.0125999 0.0522845015 -0.997053146 -0.0561393872 231 199 160
11.6056995 2.88542008 -11.2367001 0.374103308 0.232301936 0.897821009 84 12 0
10.9301996 2.87647009 -10.9622002 0.375576228 -0.66406846 0.646494925 114 44 10
11.4015999 2.59867001 -9.71936035 -0.048195336 -0.329423815 -0.942951262 186 118 71
10.6778002 2.88810992 -10.9350996 -0.80660665 -0.25735575 0.532122195 102 38 2
10.0934 3.00316 -11.3177004 0.642211676 -0.390320808 -0.659707308 117 54 11
9.69900036 3.09811997 -11.6632996 -0.996460795 -0.0737152994 -0.0403958261 86 26 0
11.3975 2.60534 -9.70444012 -0.627924502 0.697740078 -0.344774485 154 86 39
12.3156996 3.02365994 -12.0684996 -0.0352908894 -0.987601161 0.152965739 168 146 133
12.1546001 3.04207993 -12.1059999 0.0247393809 -0.999193609 -0.0316234045 227 206 185
11.2679996 2.78299999 -10.5046997 0.951317787 0.16939643 0.257487088 105 41 3
10.7123003 2.91634011 -10.9844999 0.117672823 -0.826379597 -0.550681174 112 50 9
11.8495998 2.74889994 -10.4827003 -0.343632698 -0.252689987 0.904469192 149 79 27
12.3153 3.03720999 -12.0297003 0.000756193651 -0.99912262 -0.0418764427 208 186 173
11.7487001 2.70783997 -10.1952 -0.783586144 0.252248585 0.567770362 201 138 85
11.8181 3.05209994 -11.8811998 -0.112289116 -0.99140501 0.06713669 138 114 102
11.5183001 2.94376993 -11.2409 0.485833257 -0.466028869 0.739447832 107 43 0
9.70125961 2.81677008 -9.98989964 0.861698627 -0.381320924 0.334767878 142 66 6
11.8697004 3.05381989 -11.8544998 -0.246168539 -0.959518075 0.13684383 155 131 119
11.8115997 2.77912998 -10.4749002 -0.652911067 -0.474165142 0.590656102 212 141 77
11.3671999 2.90440989 -10.9432001 0.98593986 -0.165744543 -0.0212446265 87 39 3
9.79284 3.03602004 -11.0569 0.670622885 0.74021703 0.0484155528 88 23 1
8.55955982 3.08664989 -10.8862 0.213652238 -0.976094723 0.0398975499 201 179 156
8.2710104 3.0734601 -10.7222996 0.00741689047 -0.997564018 0.0693619773 167 141 118
12.4512997 3.03684998 -11.9172001 0.00926161092 -0.955162346 0.295937747 194 172 158
11.9743996 2.8262701 -10.7151003 0.889867663 -0.429716349 0.153230935 182 104 22
11.1199999 2.92649007 -10.9174004 0.43486774 -0.750945866 0.496961057 90 33 3
10.6601 2.98083997 -11.0283003 -0.787000299 -0.215950757 -0.577923894 119 55 9
10.1698999 3.05907011 -11.2466002 0.68318516 -0.639953911 -0.351734757 74 33 5
9.71148014 3.07179999 -11.1527004 0.68784523 0.715268731 -0.123528898 92 31 0
11.1202002 2.93651009 -10.9164 0.408769935 -0.763436675 0.500071704 80 29 2
11.1237001 2.81860995 -10.3378 0.385550648 -0.875442386 0.291463912 111 58 18
10.6847 3.05545998 -11.3522997 -0.404447079 0.777435601 0.481680691 96 42 4
9.90869999 3.17486 -11.6738997 -0.225687578 0.953115046 -0.201585516 66 9 0
9.74396992 2.93311 -10.4286003 0.487161398 -0.0420873202 0.872297108 97 31 0
9.2824297 2.9483099 -10.3452997 -0.952474713 -0.0591602102 0.298817724 183 127 78
7.9835701 3.06199002 -10.4597998 -0.268090367 -0.960644841 -0.0727226362 200 165 145
12.4101 3.0195899 -11.7153997 0.0795427784 -0.95853287 -0.273656219 149 126 112
11.7375002 2.75690007 -10.1971998 -0.846019268 0.231711477 0.480167627 216 159 92
10.8298998 2.67928004 -9.50576019 -0.961387575 0.0101959566 -0.275009394 146 77 12
9.86717033 2.92598009 -10.3852997 0.55696243 -0.807127833 0.195798159 125 50 8
8.6577301 3.08631992 -10.7567997 0.212468505 -0.887741387 -0.408377975 203 176 147
8.53384972 3.07394004 -10.6536999 0.0285802428 -0.994392335 -0.101818591 184 157 138
7.98381996 3.07261992 -10.4588003 -0.27968055 -0.95715332 -0.0750724822 221 197 169
10.8555002 2.6889801 -9.51603985 -0.931225538 0.0251357649 -0.363575637 152 91 47
9.8119297 2.86315989 -10.0093002 0.342010885 -0.804617167 -0.485406965 91 23 2
8.64958 3.09182 -10.7278996 0.23881045 -0.954352498 -0.179390207 188 164 136
8.60641003 3.08846998 -10.6967001 0.0349135809 -0.997523129 0.0610598624 170 145 115
8.49680042 3.07881999 -10.6120005 -0.137771249 -0.918660998 -0.370244592 230 202 178
8.27081966 3.03465009 -10.3186998 0.0954910219 -0.981407702 0.166493908 171 148 134
12.3112001 3.04288006 -11.6935997 -0.174401045 -0.984640896 0.00817205757 171 145 132
11.1850004 2.71478009 -9.70909023 0.0208323505 -0.433171779 -0.901070595 164 104 50
8.39803028 3.09235001 -10.5913 0.0656302795 -0.997781813 -0.0111277541 182 158 134
11.0726995 2.6893599 -9.50133991 -0.103826016 0.270711988 0.957044959 210 140 80
12.5043001 3.02971005 -11.5955 0.399037272 -0.907317281 0.132455751 207 185 172
12.0290003 2.9800899 -11.1920004 0.376636356 0.152490348 0.913724005 150 127 113
10.7861004 3.16706991 -11.6693001 0.144657269 0.96370244 0.224391595 58 15 0
10.4934998 2.76659989 -9.63080025 0.68510586 -0.602956831 0.408745825 174 107 52
8.34214973 3.08242989 -10.4191999 0.293916345 -0.953799188 -0.0622901432 206 180 153
11.8430996 2.86601996 -10.5286999 0.336673886 -0.939093351 -0.0689549297 204 126 51
8.78232956 3.11689997 -10.6852999 0.176601216 -0.984234095 0.00976468623 221 193 169
8.56754971 3.06243992 -10.3486004 0.0521614626 -0.99796474 -0.0366815105 186 161 139
11.9133997 3.06545997 -11.4647999 -0.190382197 -0.914610326 0.356711596 203 182 163
10.8934002 3.0624299 -11.0488005 -0.705694795 -0.56697005 0.424899578 102 65 46
10.4371996 3.1565001 -11.3423004 -0.62051928 -0.745876372 0.242124274 91 60 39
10.2168999 3.12933993 -11.1362 -0.246064901 -0.564473629 0.787922323 103 74 58
8.8640604 3.12452006 -10.6465998 0.189228594 -0.979863048 -0.0637252107 193 166 136
12.6163998 3.0469501 -11.5198002 -0.0463349707 -0.997867107 -0.045980446 153 134 120
12.5959997 3.05664992 -11.5591002 0.0270658303 -0.990878999 0.132008836 149 130 116
8.24841976 3.04918003 -10.0228996 0.157148167 -0.98721838 0.0265412945 184 167 149
8.01504993 3.08995008 -10.1371002 -0.210884154 -0.976194382 0.050720904 213 191 167
12.5539999 3.03790998 -11.4066 -0.0858380198 -0.995477736 -0.0406944081 154 132 119
11.4483995 2.77449012 -9.77013969 -0.998331904 0.00147645723 0.0577167086 184 123 66
10.8237 3.10165 -11.1124001 -0.863650918 -0.43020305 0.262739658 65 48 28
11.9466 3.08892012 -11.3905001 -0.126523092 -0.958337069 -0.256090164 154 133 114
11.9590998 3.02303004 -11.0819998 0.917849302 -0.253082097 -0.305781633 186 147 118
11.9499998 3.02284002 -11.0780001 0.878007531 -0.286029816 -0.383783042 221 174 128
11.8077002 2.86475992 -10.2783003 -0.731754899 0.409655869 -0.544717252 177 112 54
10.9776001 3.12519002 -11.2276001 0.649782121 0.56604594 0.507321596 111 79 58
8.77221966 3.09561992 -10.3247004 0.095459938 -0.992661834 0.0742272437 204 177 158
11.9653997 3.09940004 -11.3977003 0.0489256643 -0.978102267 -0.202292189 160 137 121
8.77851009 3.11627007 -10.3746996 0.118226215 -0.988891244 0.0900909528 183 158 138
8.6740303 3.08862996 -10.2076998 0.195371896 -0.980231881 -0.0312301405 197 175 151
7.83976984 3.09208989 -9.93533039 -0.20756498 -0.964864373 0.161101311 149 112 85
12.7049999 3.02468991 -11.2526999 -0.0719062909 -0.993788362 0.0849368498 217 195 182
12.6070004 3.03805995 -11.2818003 0.0486412458 -0.983569205 0.173855573 229 207 194
11.7622995 2.87242007 -10.2079 -0.512811482 0.764776349 -0.390053332 181 112 45
9.42066956 3.04496002 -10.2107 -0.843944788 0.121747509 0.522431493 194 115 23
8.8770504 3.11838007 -10.3688002 0.24812904 -0.965344727 0.080881156 196 172 148
13.0945997 3.11685991 -11.7741003 0.675049186 -0.736106515 -0.0495532379 224 190 162
12.8339005 3.00886011 -11.1758003 0.0372546762 -0.998801053 0.0317562521 194 172 161
12.8079004 3.01603007 -11.2004995 0.0322666541 -0.998850703 -0.0354443528 206 184 173
12.2595997 3.07420993 -11.2840996 0.0456676632 -0.993765056 -0.101712614 223 202 185
11.5602999 2.88025999 -10.1295004 -0.204254627 0.936561227 0.284838557 126 71 32
10.6049004 3.11759996 -10.9145002 -0.0721918568 -0.916500568 0.39346543 124 93 65
10.1042004 2.90715003 -9.75119019 -0.658074081 -0.0590567105 0.750633478 234 157 77
8.86295986 3.0873301 -10.1681995 0.173116937 -0.984897196 -0.00283082877 153 132 113
8.24353027 3.04392004 -9.74938011 0.120124765 -0.838693738 0.531190157 186 168 148
8.03931046 3.03976989 -9.65905952 -0.0433531776 -0.988092124 0.147630334 200 174 151
12.8662004 3.01406002 -11.1648998 0.23081781 -0.97234571 -0.035595309 224 202 191
12.0150995 3.09206009 -11.2351999 0.0195501763 -0.927766919 0.37264809 213 191 177
11.5317001 2.89679003 -10.1520996 0.41338852 0.359938502 0.836393595 139 84 53
8.90445995 3.10092998 -10.1975002 0.163329542 -0.981976748 -0.0951065645 154 131 113
8.72838974 3.09220004 -10.0955 0.0329847299 -0.997922063 0.0553491078 146 123 107
8.99831963 3.1621201 -10.4673004 0.165435478 -0.986066878 0.0174131859 116 90 77
8.92918968 3.15297008 -10.4005003 0.24474214 -0.969586611 0.00167581113 214 190 166
13.0003004 3.05430007 -11.3065004 0.295773208 -0.878798366 -0.374475271 234 212 201
11.8141003 2.92393994 -10.2869997 -0.640133202 0.319231212 -0.698799491 214 140 67
10.8225002 3.04889011 -10.5243998 0.536547184 -0.708143234 -0.458966404 123 88 58
10.6809998 2.85168004 -9.55646992 -0.666725397 -0.718928576 0.196517408 146 81 27
12.8514004 3.00642991 -10.9861002 0.0872091427 -0.996058643 0.0161799006 165 143 132
12.6573 3.05965996 -11.1658001 -0.173242941 -0.983222544 -0.0570992529 198 176 162
8.95936966 3.12484002 -10.1822004 0.275208592 -0.95248121 -0.130535185 151 131 107
8.23211002 3.07366991 -9.69157982 0.322779298 -0.939108074 0.117854096 197 180 164
12.573 3.03902006 -10.9947004 -0.244719729 -0.968947887 -0.0353912376 168 149 132
11.7233 2.87837005 -9.95501995 0.652173758 -0.550649405 0.521013141 188 114 39
10.1553001 2.94815993 -9.73231983 -0.199809104 -0.596378028 0.777437747 213 137 53
9.87942028 2.98948002 -9.82756996 0.357796103 -0.229733601 0.905099094 199 123 37
8.81182957 3.09291005 -9.93478966 -0.00415263325 -0.998824179 -0.0483011976 150 129 110
8.46842003 3.04682994 -9.60186005 -0.00685977982 -0.995796621 -0.0913341269 181 159 136
11.8129997 2.92863989 -10.1746998 -0.746616662 0.476862937 -0.463858783 142 63 7
9.00881958 3.1540401 -10.2381001 0.27891624 -0.956250966 -0.0882572085 138 116 92
8.95975018 3.11905003 -10.0594997 0.110474698 -0.991752744 0.0649752468 178 154 130
8.68362999 3.10820007 -9.91318989 -0.0249137916 -0.977020144 0.211685717 144 121 113
8.60340977 3.0725801 -9.72080994 0.325141668 -0.929886103 0.172031254 204 183 166
8.3898201 3.05985999 -9.54076004 -0.12006297 -0.987540901 -0.101723194 120 106 97
8.12024975 3.07536006 -9.51809025 -0.0494144522 -0.990774333 0.126192972 221 200 181
12.3164997 3.05489993 -10.8418999 0.024764223 -0.99411279 0.10548193 228 206 192
11.7950001 2.94171 -10.1406002 -0.722395003 0.483465344 -0.494375795 129 48 1
11.2693005 2.86262989 -9.59430981 0.848836184 0.00764777418 0.528600454 153 86 34
10.6643 2.90294003 -9.56809998 -0.655829012 -0.576950312 0.486843199 247 178 100
11.0102997 2.92190003 -9.73213959 -0.00780285336 -0.880835533 0.473358214 94 35 1
12.2276001 3.05119991 -10.7039003 -0.20328711 -0.978841424 -0.023320917 211 189 176
12.0244999 3.11057997 -10.9035997 0.558702826 -0.829336941 -0.00715768849 204 180 156
11.9555998 3.07213998 -10.7042999 0.697174191 -0.699214995 0.158261299 208 147 84
11.9139996 3.04218006 -10.5530996 0.914771676 -0.372890443 -0.155387357 186 112 37
11.9226999 3.02912998 -10.4966002 0.914497375 -0.397108495 0.0774558261 165 89 14
11.7376003 2.92744994 -9.96831989 0.703185976 -0.292377651 0.648108542 186 112 41
11.1386995 2.90734005 -9.6672802 0.960540295 0.0897052512 0.263278067 124 75 42
10.4048004 2.95592999 -9.63226986 -0.175865099 -0.618520498 0.765835464 229 155 70
10.0298996 3.00917006 -9.74396038 -0.570824206 -0.372250915 0.731839418 172 95 17
9.16333961 3.16884995 -10.1691999 0.0759767964 -0.995432556 -0.0578049161 203 178 158
9.10883045 3.1359899 -10.0003004 0.121369362 -0.992451668 -0.0175800826 195 172 154
8.68414021 3.04268003 -9.42632008 0.217689633 -0.970687509 -0.10186781 205 183 169
13.1906996 3.0962801 -11.2011995 0.552518606 -0.828554511 -0.0906664357 230 212 200
11.7776003 2.94547009 -10.0212002 -0.830580413 -0.426395833 0.358222514 172 104 31
10.7909002 2.91478992 -9.53654003 0.00617050845 -0.570922375 0.820980847 217 142 59
10.7476997 2.91921997 -9.54158974 -0.0380923562 -0.948776841 0.313642055 248 176 94
9.27410984 3.1679399 -10.1567001 -0.0337584615 -0.98354423 0.177485436 183 156 135
8.49361038 3.03795004 -9.2927103 0.0702066943 -0.993406296 -0.0906361789 218 194 182
13.2426996 3.20012999 -11.6454 0.589657724 -0.775106311 -0.226967186 210 192 182
12.7966995 3.06860995 -10.8930998 -0.142196313 -0.989826918 -0.00477327686 147 124 116
11.7486 2.95679998 -10.0193996 0.00960087124 -0.783246338 -0.621637464 162 94 21
11.5065002 2.91993999 -9.76756954 -0.125643641 0.0886862949 -0.988103449 213 145 80
11.3038998 2.91049004 -9.65384007 0.889032602 0.295304 0.34988153 206 134 62
10.5467997 2.95633006 -9.59646034 -0.445041955 -0.310919881 0.839801669 179 101 26
10.2863998 3.00427008 -9.72262001 -0.403633982 0.0813232437 0.911299348 161 83 11
9.28209972 3.15156007 -10.0384998 0.12153513 -0.983894944 -0.13107191 153 128 106
8.47646046 3.08993006 -9.47708988 0.123289444 -0.991276622 0.0465887599 131 115 102
12.5927 3.04463005 -10.6691999 -0.250927866 -0.96689409 -0.0463794172 180 158 147
12.3013 3.00667 -10.3955002 -0.014240847 -0.996323526 -0.084478803 136 113 107
11.0481997 2.90109992 -9.47939968 0.0527282804 -0.29177317 0.955033004 173 105 40
10.3313999 2.98532009 -9.60877037 -0.440601498 -0.232615545 0.867041111 111 35 1
9.97130013 3.04473996 -9.75107956 -0.419712543 -0.541300416 0.728584409 218 140 58
8.88016033 3.08929992 -9.57009983 -0.0261419844 -0.999484301 0.0186457746 149 128 109
8.49131966 3.0546999 -9.27748966 0.077263236 -0.992884159 -0.0906170234 231 206 186
8.2575798 3.05796003 -9.21030045 -0.205930576 -0.9779374 0.035087198 184 163 142
7.99226999 3.09527993 -9.28598022 -0.614500523 -0.716823697 0.329474539 212 188 162
12.6569004 3.03663993 -10.6120996 -0.342080653 -0.912471354 0.224448696 154 132 119
10.3748999 2.99561 -9.6269598 -0.417839617 -0.313679188 0.852651894 103 29 0
9.33619022 3.17799997 -10.0843 -0.240258232 -0.969316661 -0.0519725978 198 181 155
9.27826977 3.14200997 -9.90190029 -0.0520593487 -0.995792329 0.0754147768 183 157 142
8.15528965 3.07098007 -9.18811035 -0.0749879852 -0.916349828 -0.393293709 194 172 148
13.0099001 3.03710008 -10.6948004 0.0798046738 -0.974054635 -0.211775556 213 191 178
8.10667038 3.08512998 -9.18964958 -0.115495235 -0.85494858 -0.505691707 170 149 130
12.7264996 3.03260994 -10.5323 -0.232298151 -0.941426456 -0.244445741 154 132 118
11.5188999 2.94341993 -9.70868969 -0.97579658 -0.216897547 -0.0278610326 161 92 27
11.2880001 2.95218992 -9.66687965 0.80764854 0.199808508 0.554779589 225 153 77
11.7639999 3.04938006 -10.2261 -0.845024705 0.0208103918 -0.534321308 112 38 3
11.6701002 3.00964999 -10.0157003 -0.810489833 0.493771046 -0.315113902 193 116 44
11.2463999 2.92810988 -9.5027504 0.448454797 -0.366344392 0.815279365 203 131 57
13.1737003 3.08744001 -10.8485003 -0.112762414 -0.908739924 -0.401841432 199 180 166
13.0024996 3.02977991 -10.5316 0.175966367 -0.981206775 -0.0791773275 225 207 195
12.8748999 3.02717996 -10.4751997 -0.0410745777 -0.952091992 0.303040892 194 176 164
11.9265003 3.12438989 -10.5742998 0.966569424 -0.229526803 -0.114283964 95 39 14
11.8959999 3.05333996 -10.2473001 0.0716829449 -0.956873536 -0.281521678 233 174 104
11.7103004 3.02788997 -10.0686998 -0.254551381 0.595263541 -0.762144983 211 139 65
11.2630997 2.96462011 -9.62971973 0.918430686 0.0669996291 0.389866441 183 109 44
10.1380997 3.06365991 -9.67483997 0.0997366533 0.607655942 0.787912965 226 149 67
9.03876972 3.06839991 -9.30922985 0.0364844725 -0.991771877 0.122709192 146 125 106
12.4598999 3.04157996 -10.3508997 0.0269810557 -0.985731244 -0.166149467 194 172 159
11.6913996 3.02594995 -10.0110998 -0.823471308 0.554699063 0.119182549 212 138 65
11.4141998 2.96055007 -9.62318993 -0.714955509 0.139842629 -0.685042202 201 126 58
8.55865955 3.05465007 -9.03553963 0.162400052 -0.985388517 0.0513377339 189 161 150
13.2149 3.10981011 -10.8767996 0.473500729 -0.822395623 -0.315377116 218 201 183
12.8781996 3.04302001 -10.4625998 0.0946344063 -0.960925162 0.260129213 139 120 114
11.5207005 2.99090004 -9.75366974 -0.950116038 0.0720723793 -0.303455263 183 114 49
10.8521996 2.96368003 -9.3977499 0.0492162332 0.755607307 0.653173208 212 134 60
10.3358002 3.05944991 -9.63957977 -0.702999353 -0.125172302 0.700088501 213 135 53
8.42566013 3.06966996 -9.01183987 -0.118634723 -0.917101979 0.380591035 229 203 176
12.1146002 3.10505009 -10.4252005 -0.263567597 -0.964604497 0.00837995764 126 102 92
11.9347 3.07953 -10.2491999 0.232405275 -0.945330441 0.228775576 59 16 0
11.8620996 3.08079004 -10.2292004 -0.904931426 -0.417625159 0.0817805901 235 169 108
11.8065004 3.04413009 -10.0479002 -0.783676267 0.228714511 -0.577530563 222 145 77
11.4187002 2.97613001 -9.61112022 -0.70599407 0.115470573 -0.698741198 171 98 29
11.1089001 2.96983004 -9.47410965 0.251657456 -0.319339633 0.913614035 135 59 1
8.4888401 3.07233 -9.00255013 -0.122531429 -0.986291349 0.110526823 213 195 171
13.4024 3.31057 -11.7412004 0.664089859 -0.740854919 -0.100591838 172 146 131
11.8324003 3.07312012 -10.1427002 -0.601108074 0.726713359 -0.332501024 162 93 26
11.1594 2.97995996 -9.49542046 0.159254923 -0.0163815022 0.987101376 141 63 0
11.1164999 3.00100994 -9.57287025 0.752219856 -0.651831746 0.0963386148 135 64 0
9.50228024 3.15455008 -9.67877007 0.11631459 -0.981977284 -0.1489674 156 133 115
13.3862 3.30642009 -11.6726999 0.641593754 -0.766505539 0.0287530739 146 131 124
12.9401999 3.01976991 -10.2579002 0.00601130165 -0.996370494 0.0849107131 208 190 180
12.1315002 3.09678006 -10.3100996 -0.245419383 -0.968844831 0.0333016068 178 156 145
9.21269035 3.10890007 -9.33263016 0.0721366704 -0.996777356 0.0350921936 207 186 167
12.7413998 3.04686999 -10.2653999 -0.110910498 -0.993607402 -0.0210562963 178 160 150
12.7421999 3.03034997 -10.1934004 -0.0985576138 -0.994582772 -0.03303691 167 149 139
12.7058001 3.03236008 -10.1893997 -0.155654311 -0.985243797 -0.0711797327 186 168 156
12.5187998 2.98722005 -9.92588043 -0.232659861 -0.964644372 0.123816796 141 122 116
11.1911001 2.96298003 -9.35070992 0.440156698 -0.121917732 0.889605463 184 112 27
11.0042 3.00327992 -9.46092033 0.321334302 -0.426444948 0.845511079 241 173 100
9.76243973 3.19303012 -9.85196018 -0.46643275 -0.847465813 0.253460407 93 74 57
9.03575993 3.06248999 -9.02429962 -0.00452871295 -0.999985635 0.00285653933 138 121 103
8.04580975 3.13056993 -8.97220993 -0.434787542 -0.804243207 0.405157924 200 169 148
11.5256996 3.03407001 -9.73880005 0.768920183 -0.240298808 0.592467904 208 133 68
11.3692999 2.97285008 -9.4164896 -0.404913694 0.468975663 -0.784924686 192 122 62
10.9720001 3.0007 -9.39745045 0.075788185 -0.806146204 0.586842835 178 104 29
8.45528984 3.09050989 -8.89912033 -0.249315485 -0.968217611 0.0199158434 124 110 101
13.0860004 3.05554008 -10.3435001 0.187468335 -0.96517992 -0.182436898 180 157 151
11.8762999 3.14459991 -10.3025999 -0.521995127 -0.725349903 -0.44876346 97 68 60
11.8087997 3.09611011 -10.0678997 -0.886349797 0.131317675 -0.444004476 157 88 33
11.0721998 3.01738 -9.46485996 -0.0956616402 -0.382139981 0.919139683 231 160 94
10.7186003 3.04623008 -9.46516991 -0.136464521 -0.351044148 0.926361442 161 84 12
9.94270992 3.19122005 -9.82106018 0.40392831 -0.913093269 -0.0557010137 50 14 0
13.0881004 3.04522991 -10.2589998 0.247439638 -0.968094289 0.0395863168 134 114 113
12.5534 3.02881002 -9.99845982 -0.926891685 -0.155949324 0.341397256 196 179 163
11.0226002 3.01992011 -9.41783047 0.218031317 -0.0835415274 0.972359538 156 79 9
9.37366962 3.08925009 -9.13446999 0.46245864 -0.885328293 -0.0482247695 152 130 116
11.7728004 3.16135001 -10.2546997 -0.474413484 -0.297074586 -0.828660846 78 42 20
11.6780005 3.06464005 -9.80311012 0.746476769 -0.428903937 0.508737206 210 150 87
11.5122995 3.04175997 -9.64548016 -0.854035735 0.348162562 -0.386530697 112 33 0
9.61682034 3.15654993 -9.46994019 0.0111385053 -0.985997379 -0.166388661 159 138 121
11.7924004 3.07891989 -9.86474037 0.3894943 -0.873944759 0.290714145 87 41 17
10.6582003 3.0838201 -9.48359966 -0.378430337 0.163742617 0.911031842 211 133 58
9.42591953 3.10909009 -9.15550995 0.195152193 -0.978247166 0.0703406408 200 179 162
9.22737026 3.10505009 -9.0676899 -0.0715623051 -0.996885777 0.0331279933 203 185 173
9.06443977 3.03745008 -8.71848965 -0.193237811 -0.974664688 -0.112639785 142 120 107
7.93825006 3.19625998 -9.00364971 -0.878926635 -0.471232176 0.0736743063 174 155 138
13.4580002 3.36863995 -11.6605997 0.784470201 -0.619166672 -0.0352017209 147 127 120
13.2526999 3.10655999 -10.4612999 0.415271968 -0.909500539 -0.0189278629 166 143 137
12.8566999 3.04244995 -10.0452995 -0.184612647 -0.968142807 -0.169167772 213 189 177
11.7782001 3.18312001 -10.2671003 -0.119622655 -0.951955378 -0.281906784 75 51 51
11.0685997 3.05656004 -9.47132969 -0.00861951336 -0.118343167 0.9929353 120 45 5
10.0571003 3.19859004 -9.72276974 -0.19756259 -0.761612475 0.617184162 49 19 9
9.14074993 3.07624006 -8.87170982 -0.033265654 -0.998031557 -0.0531635806 200 183 165
9.10334969 3.0334301 -8.67444038 -0.041754812 -0.999032319 -0.0138078462 138 114 110
8.94464016 3.05262995 -8.70063972 -0.064559415 -0.997519016 -0.0280707553 219 194 172
13.2558002 3.14106011 -10.5702 0.59095037 -0.798874974 0.112144917 182 161 156
12.8589001 3.01774001 -9.90067959 0.0527665503 -0.998432338 -0.0186699647 193 176 168
12.7152004 3.03449011 -9.92144012 -0.179909721 -0.978268802 -0.103065521 230 208 194
11.9542999 3.10616994 -9.95839977 -0.12026453 -0.992674232 0.0115953833 200 178 165
9.48857975 3.10665011 -9.08475971 0.0670250207 -0.94505477 -0.319967359 159 142 124
9.49658966 3.07308006 -8.94373035 0.126735896 -0.989898503 -0.0635541156 137 120 102
8.23176003 3.14576006 -8.80601025 0.0424441546 -0.986704588 0.156884134 176 162 151
11.6716995 3.07577991 -9.68782997 0.681057394 -0.576448262 0.451517731 94 49 18
8.83078003 3.07440996 -8.67234039 -0.0186750945 -0.982530951 0.185160041 123 102 101
9.7800703 3.16796994 -9.36822033 0.101599008 -0.99433291 0.0312970392 138 116 102
9.74510002 3.14464998 -9.25638008 -0.0990822837 -0.99456805 0.0318914056 192 171 154
9.59140968 3.11891007 -9.09204006 0.310019463 -0.946845353 -0.0858589038 206 184 171
13.4404001 3.39637995 -11.6002998 0.23822473 -0.965106726 -0.108709477 164 149 144
13.3486996 3.31798005 -11.2346001 0.776134789 -0.599380851 -0.195850804 169 154 149
12.4477997 3.05304003 -9.78818035 -0.176497385 -0.981823981 -0.0697864592 183 161 148
12.0232 3.10109997 -9.84127045 -0.136125073 -0.988792896 0.0613057129 185 163 150
11.5732002 3.10895991 -9.71455956 0.0913690105 -0.584083021 0.806534946 178 127 74
11.3628998 3.09334993 -9.57336998 0.098202154 0.205882654 -0.973636806 209 140 73
10.0604 3.1575799 -9.38276958 0.0363175534 -0.985318899 -0.16681689 173 152 135
9.74098969 3.11139989 -9.07285023 -0.0370001569 -0.980584323 -0.192575961 202 180 166
9.60828018 3.12004995 -9.06233978 0.320099503 -0.940455675 -0.114365093 201 183 171
8.94701004 3.08108997 -8.66147041 -0.106818855 -0.950011492 0.293373317 223 202 185
8.42784023 3.12722993 -8.67276955 -0.701412141 -0.0654885173 0.709740758 182 164 152
10.1782999 3.18071008 -9.48204041 -0.0826534256 -0.994466364 0.0648424029 198 175 159
